-2912.000000 -928.000000 144.000000
-2912.607790 -927.240263 142.252604
-2913.215579 -926.480526 140.505209
-2913.823369 -925.720788 138.757813
-2914.431159 -924.961051 137.010418
-2915.038949 -924.201314 135.263022
-2915.646738 -923.441577 133.515627
-2916.254528 -922.681840 131.768231
-2916.862318 -921.922103 130.020836
-2917.470108 -921.162365 128.273440
-2918.077897 -920.402628 126.526045
-2918.685687 -919.642891 124.778649
-2919.293477 -918.883154 123.031254
-2919.901267 -918.123417 121.283858
-2920.509056 -917.363680 119.536463
-2921.116846 -916.603942 117.789067
-2921.724636 -915.844205 116.041672
-2922.332426 -915.084468 114.294276
-2922.940215 -914.324731 112.546881
-2923.548005 -913.564994 110.799485
-2924.155795 -912.805256 109.052090
-2924.763585 -912.045519 107.304694
-2925.371374 -911.285782 105.557299
-2925.979164 -910.526045 103.809903
-2926.586954 -909.766308 102.062508
-2927.194744 -909.006571 100.315112
-2927.802533 -908.246833 98.567717
-2928.410323 -907.487096 96.820321
-2929.018113 -906.727359 95.072926
-2929.625902 -905.967622 93.325530
-2930.233692 -905.207885 91.578135
-2930.841482 -904.448148 89.830739
-2931.449272 -903.688410 88.083344
-2932.057061 -902.928673 86.335948
-2932.664851 -902.168936 84.588553
-2933.272641 -901.409199 82.841157
-2933.880431 -900.649462 81.093762
-2934.488220 -899.889724 79.346366
-2935.096010 -899.129987 77.598971
-2935.703800 -898.370250 75.851575
-2936.311590 -897.610513 74.104180
-2936.919379 -896.850776 72.356784
-2937.527169 -896.091039 70.609389
-2938.134959 -895.331301 68.861993
-2938.742749 -894.571564 67.114598
-2939.350538 -893.811827 65.367202
-2939.958328 -893.052090 63.619807
-2940.566118 -892.292353 61.872411
-2941.173908 -891.532616 60.125016
-2941.781697 -890.772878 58.377620
-2942.389487 -890.013141 56.630225
-2942.997277 -889.253404 54.882829
-2944.000000 -888.000000 52.000000
-2944.750386 -886.146106 52.000000
-2945.500771 -884.292213 52.000000
-2946.251157 -882.438319 52.000000
-2947.001542 -880.584425 52.000000
-2947.751928 -878.730532 52.000000
-2948.502313 -876.876638 52.000000
-2949.252699 -875.022745 52.000000
-2950.003084 -873.168851 52.000000
-2950.753470 -871.314957 52.000000
-2951.503855 -869.461064 52.000000
-2952.254241 -867.607170 52.000000
-2953.004626 -865.753276 52.000000
-2953.755012 -863.899383 52.000000
-2954.505397 -862.045489 52.000000
-2955.255783 -860.191596 52.000000
-2956.006168 -858.337702 52.000000
-2956.756554 -856.483808 52.000000
-2957.506939 -854.629915 52.000000
-2958.257325 -852.776021 52.000000
-2959.007710 -850.922127 52.000000
-2959.758096 -849.068234 52.000000
-2960.508481 -847.214340 52.000000
-2961.258867 -845.360447 52.000000
-2962.009252 -843.506553 52.000000
-2962.759638 -841.652659 52.000000
-2963.510023 -839.798766 52.000000
-2964.260409 -837.944872 52.000000
-2965.010794 -836.090978 52.000000
-2965.761180 -834.237085 52.000000
-2966.511565 -832.383191 52.000000
-2967.261951 -830.529298 52.000000
-2968.012336 -828.675404 52.000000
-2968.762722 -826.821510 52.000000
-2969.513108 -824.967617 52.000000
-2970.263493 -823.113723 52.000000
-2971.013879 -821.259829 52.000000
-2971.764264 -819.405936 52.000000
-2972.514650 -817.552042 52.000000
-2973.265035 -815.698149 52.000000
-2974.015421 -813.844255 52.000000
-2974.765806 -811.990361 52.000000
-2975.516192 -810.136468 52.000000
-2976.266577 -808.282574 52.000000
-2977.016963 -806.428680 52.000000
-2978.000000 -804.000000 52.000000
-2978.000000 -802.073467 51.462906
-2978.000000 -800.146934 50.925812
-2978.000000 -798.220401 50.388718
-2978.000000 -796.293867 49.851624
-2978.000000 -794.367334 49.314530
-2978.000000 -792.440801 48.777435
-2978.000000 -790.514268 48.240341
-2978.000000 -788.587735 47.703247
-2978.000000 -786.661202 47.166153
-2978.000000 -784.734669 46.629059
-2978.000000 -782.808135 46.091965
-2978.000000 -780.881602 45.554871
-2978.000000 -778.955069 45.017777
-2978.000000 -777.028536 44.480683
-2978.000000 -775.102003 43.943589
-2978.000000 -773.175470 43.406495
-2978.000000 -771.248937 42.869401
-2978.000000 -769.322403 42.332306
-2978.000000 -767.395870 41.795212
-2978.000000 -765.469337 41.258118
-2978.000000 -763.542804 40.721024
-2978.000000 -761.616271 40.183930
-2978.000000 -759.689738 39.646836
-2978.000000 -757.763205 39.109742
-2978.000000 -755.836671 38.572648
-2978.000000 -753.910138 38.035554
-2978.000000 -751.983605 37.498460
-2978.000000 -750.057072 36.961366
-2978.000000 -748.130539 36.424271
-2978.000000 -746.204006 35.887177
-2978.000000 -744.277473 35.350083
-2978.000000 -742.350940 34.812989
-2978.000000 -740.424406 34.275895
-2978.000000 -738.497873 33.738801
-2978.000000 -736.571340 33.201707
-2978.000000 -734.644807 32.664613
-2978.000000 -732.718274 32.127519
-2978.000000 -730.791741 31.590425
-2978.000000 -728.865208 31.053331
-2978.000000 -726.938674 30.516236
-2978.000000 -725.012141 29.979142
-2978.000000 -723.085608 29.442048
-2978.000000 -721.159075 28.904954
-2978.000000 -719.232542 28.367860
-2978.000000 -717.306009 27.830766
-2978.000000 -715.379476 27.293672
-2978.000000 -713.452942 26.756578
-2978.000000 -711.526409 26.219484
-2978.000000 -709.599876 25.682390
-2978.000000 -707.673343 25.145296
-2978.000000 -705.746810 24.608202
-2978.000000 -703.820277 24.071107
-2978.000000 -701.893744 23.534013
-2978.000000 -699.967210 22.996919
-2978.000000 -698.040677 22.459825
-2978.000000 -696.114144 21.922731
-2978.000000 -694.187611 21.385637
-2978.000000 -692.261078 20.848543
-2978.000000 -690.334545 20.311449
-2978.000000 -688.408012 19.774355
-2978.000000 -686.481478 19.237261
-2978.000000 -684.554945 18.700167
-2978.000000 -682.628412 18.163072
-2978.000000 -680.701879 17.625978
-2978.000000 -678.775346 17.088884
-2978.000000 -676.848813 16.551790
-2978.000000 -674.922280 16.014696
-2978.000000 -672.995746 15.477602
-2978.000000 -671.069213 14.940508
-2978.000000 -669.142680 14.403414
-2978.000000 -667.216147 13.866320
-2978.000000 -665.289614 13.329226
-2978.000000 -663.363081 12.792132
-2978.000000 -661.436548 12.255038
-2978.000000 -659.510014 11.717943
-2978.000000 -657.583481 11.180849
-2978.000000 -655.656948 10.643755
-2978.000000 -653.730415 10.106661
-2978.000000 -651.803882 9.569567
-2978.000000 -649.877349 9.032473
-2978.000000 -647.950816 8.495379
-2978.000000 -646.024282 7.958285
-2978.000000 -644.097749 7.421191
-2978.000000 -642.171216 6.884097
-2978.000000 -640.244683 6.347003
-2978.000000 -638.318150 5.809908
-2978.000000 -636.391617 5.272814
-2978.000000 -634.465084 4.735720
-2978.000000 -632.538551 4.198626
-2978.000000 -630.612017 3.661532
-2978.000000 -628.685484 3.124438
-2978.000000 -626.758951 2.587344
-2978.000000 -624.832418 2.050250
-2978.000000 -622.905885 1.513156
-2978.000000 -620.979352 0.976062
-2978.000000 -619.052819 0.438968
-2978.000000 -617.126285 -0.098126
-2978.000000 -615.199752 -0.635221
-2978.000000 -613.273219 -1.172315
-2978.000000 -611.346686 -1.709409
-2978.000000 -609.420153 -2.246503
-2978.000000 -607.493620 -2.783597
-2978.000000 -605.567087 -3.320691
-2978.000000 -603.640553 -3.857785
-2978.000000 -601.714020 -4.394879
-2978.000000 -599.787487 -4.931973
-2978.000000 -597.860954 -5.469067
-2978.000000 -595.934421 -6.006161
-2978.000000 -594.007888 -6.543256
-2978.000000 -592.081355 -7.080350
-2978.000000 -590.154821 -7.617444
-2978.000000 -588.228288 -8.154538
-2978.000000 -586.301755 -8.691632
-2978.000000 -584.375222 -9.228726
-2978.000000 -582.448689 -9.765820
-2978.000000 -580.522156 -10.302914
-2978.000000 -578.595623 -10.840008
-2978.000000 -576.669089 -11.377102
-2978.000000 -574.742556 -11.914196
-2978.000000 -572.816023 -12.451291
-2978.000000 -570.889490 -12.988385
-2978.000000 -568.962957 -13.525479
-2978.000000 -567.036424 -14.062573
-2978.000000 -565.109891 -14.599667
-2978.000000 -563.183357 -15.136761
-2978.000000 -561.256824 -15.673855
-2978.000000 -559.330291 -16.210949
-2978.000000 -557.403758 -16.748043
-2978.000000 -555.477225 -17.285137
-2978.000000 -553.550692 -17.822231
-2978.000000 -551.624159 -18.359325
-2978.000000 -549.697625 -18.896420
-2978.000000 -547.771092 -19.433514
-2978.000000 -545.844559 -19.970608
-2978.000000 -543.918026 -20.507702
-2978.000000 -541.991493 -21.044796
-2978.000000 -540.064960 -21.581890
-2978.000000 -538.138427 -22.118984
-2978.000000 -536.211893 -22.656078
-2978.000000 -534.285360 -23.193172
-2978.000000 -532.358827 -23.730266
-2978.000000 -530.432294 -24.267360
-2978.000000 -528.505761 -24.804455
-2978.000000 -526.579228 -25.341549
-2978.000000 -524.652695 -25.878643
-2978.000000 -522.726162 -26.415737
-2978.000000 -520.799628 -26.952831
-2978.000000 -518.873095 -27.489925
-2978.000000 -516.946562 -28.027019
-2978.000000 -515.020029 -28.564113
-2978.000000 -513.093496 -29.101207
-2978.000000 -511.166963 -29.638301
-2978.000000 -509.240430 -30.175395
-2978.000000 -507.313896 -30.712489
-2978.000000 -505.387363 -31.249584
-2978.000000 -503.460830 -31.786678
-2978.000000 -501.534297 -32.323772
-2978.000000 -499.607764 -32.860866
-2978.000000 -497.681231 -33.397960
-2978.000000 -495.754698 -33.935054
-2978.000000 -493.828164 -34.472148
-2978.000000 -491.901631 -35.009242
-2978.000000 -489.975098 -35.546336
-2978.000000 -488.048565 -36.083430
-2978.000000 -486.122032 -36.620524
-2978.000000 -484.195499 -37.157619
-2978.000000 -482.268966 -37.694713
-2978.000000 -480.342432 -38.231807
-2978.000000 -478.415899 -38.768901
-2978.000000 -476.489366 -39.305995
-2978.000000 -474.000000 -40.000000
-2978.845041 -475.457928 -41.077195
-2979.690083 -476.915857 -42.154391
-2980.535124 -478.373785 -43.231586
-2981.380165 -479.831713 -44.308782
-2982.225206 -481.289642 -45.385977
-2983.070248 -482.747570 -46.463173
-2983.915289 -484.205499 -47.540368
-2984.760330 -485.663427 -48.617564
-2985.605372 -487.121355 -49.694759
-2986.450413 -488.579284 -50.771955
-2987.295454 -490.037212 -51.849150
-2988.140495 -491.495140 -52.926346
-2988.985537 -492.953069 -54.003541
-2989.830578 -494.410997 -55.080737
-2990.675619 -495.868926 -56.157932
-2991.520661 -497.326854 -57.235128
-2992.365702 -498.784782 -58.312323
-2993.210743 -500.242711 -59.389519
-2994.055784 -501.700639 -60.466714
-2994.900826 -503.158567 -61.543910
-2995.745867 -504.616496 -62.621105
-2996.590908 -506.074424 -63.698301
-2997.435950 -507.532352 -64.775496
-2998.280991 -508.990281 -65.852692
-2999.126032 -510.448209 -66.929887
-2999.971073 -511.906138 -68.007083
-3000.816115 -513.364066 -69.084278
-3001.661156 -514.821994 -70.161473
-3002.506197 -516.279923 -71.238669
-3003.351238 -517.737851 -72.315864
-3004.196280 -519.195779 -73.393060
-3005.041321 -520.653708 -74.470255
-3005.886362 -522.111636 -75.547451
-3006.731404 -523.569564 -76.624646
-3007.576445 -525.027493 -77.701842
-3008.421486 -526.485421 -78.779037
-3009.266527 -527.943350 -79.856233
-3010.111569 -529.401278 -80.933428
-3010.956610 -530.859206 -82.010624
-3011.801651 -532.317135 -83.087819
-3012.646693 -533.775063 -84.165015
-3013.491734 -535.232991 -85.242210
-3014.336775 -536.690920 -86.319406
-3015.181816 -538.148848 -87.396601
-3016.026858 -539.606777 -88.473797
-3016.871899 -541.064705 -89.550992
-3017.716940 -542.522633 -90.628188
-3018.561982 -543.980562 -91.705383
-3019.407023 -545.438490 -92.782579
-3020.252064 -546.896418 -93.859774
-3021.097105 -548.354347 -94.936970
-3021.942147 -549.812275 -96.014165
-3022.787188 -551.270203 -97.091361
-3023.632229 -552.728132 -98.168556
-3024.477271 -554.186060 -99.245751
-3025.322312 -555.643989 -100.322947
-3026.167353 -557.101917 -101.400142
-3027.012394 -558.559845 -102.477338
-3027.857436 -560.017774 -103.554533
-3028.702477 -561.475702 -104.631729
-3029.547518 -562.933630 -105.708924
-3030.392560 -564.391559 -106.786120
-3031.237601 -565.849487 -107.863315
-3032.082642 -567.307416 -108.940511
-3032.927683 -568.765344 -110.017706
-3033.772725 -570.223272 -111.094902
-3034.617766 -571.681201 -112.172097
-3035.462807 -573.139129 -113.249293
-3036.307849 -574.597057 -114.326488
-3037.152890 -576.054986 -115.403684
-3037.997931 -577.512914 -116.480879
-3038.842972 -578.970842 -117.558075
-3039.688014 -580.428771 -118.635270
-3040.533055 -581.886699 -119.712466
-3041.378096 -583.344628 -120.789661
-3042.223138 -584.802556 -121.866857
-3043.068179 -586.260484 -122.944052
-3043.913220 -587.718413 -124.021248
-3044.758261 -589.176341 -125.098443
-3045.603303 -590.634269 -126.175639
-3046.448344 -592.092198 -127.252834
-3047.293385 -593.550126 -128.330029
-3048.138426 -595.008054 -129.407225
-3048.983468 -596.465983 -130.484420
-3049.828509 -597.923911 -131.561616
-3050.673550 -599.381840 -132.638811
-3051.518592 -600.839768 -133.716007
-3052.363633 -602.297696 -134.793202
-3053.208674 -603.755625 -135.870398
-3054.053715 -605.213553 -136.947593
-3054.898757 -606.671481 -138.024789
-3055.743798 -608.129410 -139.101984
-3056.588839 -609.587338 -140.179180
-3057.433881 -611.045267 -141.256375
-3058.278922 -612.503195 -142.333571
-3059.123963 -613.961123 -143.410766
-3059.969004 -615.419052 -144.487962
-3060.814046 -616.876980 -145.565157
-3061.659087 -618.334908 -146.642353
-3062.504128 -619.792837 -147.719548
-3063.349170 -621.250765 -148.796744
-3064.194211 -622.708693 -149.873939
-3065.039252 -624.166622 -150.951135
-3065.884293 -625.624550 -152.028330
-3066.729335 -627.082479 -153.105526
-3067.574376 -628.540407 -154.182721
-3068.419417 -629.998335 -155.259917
-3069.264459 -631.456264 -156.337112
-3070.109500 -632.914192 -157.414307
-3070.954541 -634.372120 -158.491503
-3071.799582 -635.830049 -159.568698
-3072.644624 -637.287977 -160.645894
-3073.489665 -638.745906 -161.723089
-3074.334706 -640.203834 -162.800285
-3075.179748 -641.661762 -163.877480
-3076.024789 -643.119691 -164.954676
-3076.869830 -644.577619 -166.031871
-3077.714871 -646.035547 -167.109067
-3078.559913 -647.493476 -168.186262
-3079.404954 -648.951404 -169.263458
-3080.249995 -650.409332 -170.340653
-3081.095037 -651.867261 -171.417849
-3081.940078 -653.325189 -172.495044
-3082.785119 -654.783118 -173.572240
-3083.630160 -656.241046 -174.649435
-3084.475202 -657.698974 -175.726631
-3085.320243 -659.156903 -176.803826
-3086.165284 -660.614831 -177.881022
-3087.010326 -662.072759 -178.958217
-3087.855367 -663.530688 -180.035413
-3088.700408 -664.988616 -181.112608
-3089.545449 -666.446544 -182.189804
-3090.390491 -667.904473 -183.266999
-3091.235532 -669.362401 -184.344195
-3092.080573 -670.820330 -185.421390
-3092.925614 -672.278258 -186.498586
-3093.770656 -673.736186 -187.575781
-3094.615697 -675.194115 -188.652976
-3095.460738 -676.652043 -189.730172
-3096.305780 -678.109971 -190.807367
-3097.150821 -679.567900 -191.884563
-3097.995862 -681.025828 -192.961758
-3098.840903 -682.483757 -194.038954
-3099.685945 -683.941685 -195.116149
-3100.530986 -685.399613 -196.193345
-3101.376027 -686.857542 -197.270540
-3102.221069 -688.315470 -198.347736
-3103.066110 -689.773398 -199.424931
-3103.911151 -691.231327 -200.502127
-3104.756192 -692.689255 -201.579322
-3105.601234 -694.147183 -202.656518
-3106.446275 -695.605112 -203.733713
-3107.291316 -697.063040 -204.810909
-3108.136358 -698.520969 -205.888104
-3108.981399 -699.978897 -206.965300
-3109.826440 -701.436825 -208.042495
-3110.671481 -702.894754 -209.119691
-3111.516523 -704.352682 -210.196886
-3112.361564 -705.810610 -211.274082
-3113.206605 -707.268539 -212.351277
-3114.051647 -708.726467 -213.428473
-3114.896688 -710.184396 -214.505668
-3115.741729 -711.642324 -215.582864
-3116.586770 -713.100252 -216.660059
-3117.431812 -714.558181 -217.737254
-3118.276853 -716.016109 -218.814450
-3119.121894 -717.474037 -219.891645
-3119.966936 -718.931966 -220.968841
-3120.811977 -720.389894 -222.046036
-3121.657018 -721.847822 -223.123232
-3122.502059 -723.305751 -224.200427
-3123.347101 -724.763679 -225.277623
-3124.192142 -726.221608 -226.354818
-3125.037183 -727.679536 -227.432014
-3125.882225 -729.137464 -228.509209
-3126.727266 -730.595393 -229.586405
-3127.572307 -732.053321 -230.663600
-3128.417348 -733.511249 -231.740796
-3129.262390 -734.969178 -232.817991
-3130.107431 -736.427106 -233.895187
-3130.952472 -737.885034 -234.972382
-3131.797514 -739.342963 -236.049578
-3132.642555 -740.800891 -237.126773
-3133.487596 -742.258820 -238.203969
-3134.332637 -743.716748 -239.281164
-3135.177679 -745.174676 -240.358360
-3136.022720 -746.632605 -241.435555
-3136.867761 -748.090533 -242.512751
-3137.712802 -749.548461 -243.589946
-3138.557844 -751.006390 -244.667142
-3139.402885 -752.464318 -245.744337
-3140.247926 -753.922247 -246.821532
-3141.092968 -755.380175 -247.898728
-3141.938009 -756.838103 -248.975923
-3142.783050 -758.296032 -250.053119
-3143.628091 -759.753960 -251.130314
-3144.473133 -761.211888 -252.207510
-3145.318174 -762.669817 -253.284705
-3146.163215 -764.127745 -254.361901
-3147.008257 -765.585673 -255.439096
-3147.853298 -767.043602 -256.516292
-3148.698339 -768.501530 -257.593487
-3149.543380 -769.959459 -258.670683
-3150.388422 -771.417387 -259.747878
-3151.233463 -772.875315 -260.825074
-3152.078504 -774.333244 -261.902269
-3152.923546 -775.791172 -262.979465
-3153.768587 -777.249100 -264.056660
-3154.613628 -778.707029 -265.133856
-3155.458669 -780.164957 -266.211051
-3156.303711 -781.622886 -267.288247
-3157.148752 -783.080814 -268.365442
-3157.993793 -784.538742 -269.442638
-3158.838835 -785.996671 -270.519833
-3160.000000 -788.000000 -272.000000
-3159.222056 -789.842499 -272.000000
-3158.444112 -791.684998 -272.000000
-3157.666168 -793.527497 -272.000000
-3156.888224 -795.369996 -272.000000
-3156.110280 -797.212496 -272.000000
-3155.332336 -799.054995 -272.000000
-3154.554391 -800.897494 -272.000000
-3153.776447 -802.739993 -272.000000
-3152.998503 -804.582492 -272.000000
-3152.220559 -806.424991 -272.000000
-3151.442615 -808.267490 -272.000000
-3150.664671 -810.109989 -272.000000
-3149.886727 -811.952489 -272.000000
-3149.108783 -813.794988 -272.000000
-3148.330839 -815.637487 -272.000000
-3147.552895 -817.479986 -272.000000
-3146.774951 -819.322485 -272.000000
-3145.997007 -821.164984 -272.000000
-3145.219063 -823.007483 -272.000000
-3144.441119 -824.849982 -272.000000
-3143.663174 -826.692482 -272.000000
-3142.885230 -828.534981 -272.000000
-3142.107286 -830.377480 -272.000000
-3141.329342 -832.219979 -272.000000
-3140.551398 -834.062478 -272.000000
-3139.773454 -835.904977 -272.000000
-3138.995510 -837.747476 -272.000000
-3138.217566 -839.589975 -272.000000
-3137.439622 -841.432475 -272.000000
-3136.661678 -843.274974 -272.000000
-3135.883734 -845.117473 -272.000000
-3135.105790 -846.959972 -272.000000
-3134.327846 -848.802471 -272.000000
-3133.549901 -850.644970 -272.000000
-3132.771957 -852.487469 -272.000000
-3131.994013 -854.329968 -272.000000
-3131.216069 -856.172468 -272.000000
-3130.438125 -858.014967 -272.000000
-3129.660181 -859.857466 -272.000000
-3128.882237 -861.699965 -272.000000
-3128.104293 -863.542464 -272.000000
-3127.326349 -865.384963 -272.000000
-3126.548405 -867.227462 -272.000000
-3125.770461 -869.069961 -272.000000
-3124.992517 -870.912461 -272.000000
-3124.214573 -872.754960 -272.000000
-3123.436629 -874.597459 -272.000000
-3122.658684 -876.439958 -272.000000
-3121.880740 -878.282457 -272.000000
-3121.102796 -880.124956 -272.000000
-3120.324852 -881.967455 -272.000000
-3119.546908 -883.809954 -272.000000
-3118.768964 -885.652454 -272.000000
-3117.991020 -887.494953 -272.000000
-3117.213076 -889.337452 -272.000000
-3116.435132 -891.179951 -272.000000
-3115.657188 -893.022450 -272.000000
-3114.879244 -894.864949 -272.000000
-3114.101300 -896.707448 -272.000000
-3113.323356 -898.549947 -272.000000
-3112.545411 -900.392446 -272.000000
-3111.767467 -902.234946 -272.000000
-3110.989523 -904.077445 -272.000000
-3110.211579 -905.919944 -272.000000
-3109.433635 -907.762443 -272.000000
-3108.655691 -909.604942 -272.000000
-3107.877747 -911.447441 -272.000000
-3107.099803 -913.289940 -272.000000
-3106.321859 -915.132439 -272.000000
-3105.543915 -916.974939 -272.000000
-3104.765971 -918.817438 -272.000000
-3103.988027 -920.659937 -272.000000
-3103.210083 -922.502436 -272.000000
-3102.432139 -924.344935 -272.000000
-3101.654194 -926.187434 -272.000000
-3100.876250 -928.029933 -272.000000
-3100.098306 -929.872432 -272.000000
-3099.320362 -931.714932 -272.000000
-3098.542418 -933.557431 -272.000000
-3097.764474 -935.399930 -272.000000
-3096.986530 -937.242429 -272.000000
-3096.208586 -939.084928 -272.000000
-3095.430642 -940.927427 -272.000000
-3094.652698 -942.769926 -272.000000
-3093.874754 -944.612425 -272.000000
-3093.096810 -946.454925 -272.000000
-3092.318866 -948.297424 -272.000000
-3091.540921 -950.139923 -272.000000
-3090.762977 -951.982422 -272.000000
-3089.985033 -953.824921 -272.000000
-3089.207089 -955.667420 -272.000000
-3088.429145 -957.509919 -272.000000
-3087.651201 -959.352418 -272.000000
-3086.873257 -961.194918 -272.000000
-3086.095313 -963.037417 -272.000000
-3085.317369 -964.879916 -272.000000
-3084.000000 -968.000000 -272.000000
-3083.607768 -969.961161 -272.000000
-3083.215535 -971.922323 -272.000000
-3082.823303 -973.883484 -272.000000
-3082.431071 -975.844645 -272.000000
-3082.038839 -977.805807 -272.000000
-3081.646606 -979.766968 -272.000000
-3081.254374 -981.728129 -272.000000
-3080.862142 -983.689291 -272.000000
-3080.469910 -985.650452 -272.000000
-3080.077677 -987.611614 -272.000000
-3079.685445 -989.572775 -272.000000
-3079.293213 -991.533936 -272.000000
-3078.900980 -993.495098 -272.000000
-3078.508748 -995.456259 -272.000000
-3078.116516 -997.417420 -272.000000
-3077.724284 -999.378582 -272.000000
-3077.332051 -1001.339743 -272.000000
-3076.939819 -1003.300904 -272.000000
-3076.547587 -1005.262066 -272.000000
-3076.155355 -1007.223227 -272.000000
-3075.763122 -1009.184388 -272.000000
-3075.370890 -1011.145550 -272.000000
-3074.978658 -1013.106711 -272.000000
-3074.586426 -1015.067872 -272.000000
-3074.194193 -1017.029034 -272.000000
-3073.801961 -1018.990195 -272.000000
-3073.409729 -1020.951356 -272.000000
-3073.017496 -1022.912518 -272.000000
-3072.625264 -1024.873679 -272.000000
-3072.233032 -1026.834841 -272.000000
-3071.840800 -1028.796002 -272.000000
-3071.448567 -1030.757163 -272.000000
-3071.056335 -1032.718325 -272.000000
-3070.664103 -1034.679486 -272.000000
-3070.271871 -1036.640647 -272.000000
-3069.879638 -1038.601809 -272.000000
-3069.487406 -1040.562970 -272.000000
-3069.095174 -1042.524131 -272.000000
-3068.702941 -1044.485293 -272.000000
-3068.310709 -1046.446454 -272.000000
-3067.918477 -1048.407615 -272.000000
-3067.526245 -1050.368777 -272.000000
-3067.134012 -1052.329938 -272.000000
-3066.741780 -1054.291099 -272.000000
-3066.349548 -1056.252261 -272.000000
-3065.957316 -1058.213422 -272.000000
-3065.565083 -1060.174584 -272.000000
-3065.172851 -1062.135745 -272.000000
-3064.780619 -1064.096906 -272.000000
-3064.388386 -1066.058068 -272.000000
-3063.996154 -1068.019229 -272.000000
-3063.603922 -1069.980390 -272.000000
-3063.211690 -1071.941552 -272.000000
-3062.819457 -1073.902713 -272.000000
-3062.427225 -1075.863874 -272.000000
-3062.034993 -1077.825036 -272.000000
-3061.642761 -1079.786197 -272.000000
-3061.250528 -1081.747358 -272.000000
-3060.858296 -1083.708520 -272.000000
-3060.466064 -1085.669681 -272.000000
-3060.073832 -1087.630842 -272.000000
-3059.681599 -1089.592004 -272.000000
-3059.289367 -1091.553165 -272.000000
-3058.897135 -1093.514326 -272.000000
-3058.504902 -1095.475488 -272.000000
-3058.112670 -1097.436649 -272.000000
-3057.720438 -1099.397811 -272.000000
-3057.328206 -1101.358972 -272.000000
-3056.935973 -1103.320133 -272.000000
-3056.543741 -1105.281295 -272.000000
-3056.000000 -1108.000000 -272.000000
-3055.367544 -1109.897367 -272.000000
-3054.735089 -1111.794733 -272.000000
-3054.102633 -1113.692100 -272.000000
-3053.470178 -1115.589466 -272.000000
-3052.837722 -1117.486833 -272.000000
-3052.205267 -1119.384200 -272.000000
-3051.572811 -1121.281566 -272.000000
-3050.940356 -1123.178933 -272.000000
-3050.307900 -1125.076299 -272.000000
-3049.675445 -1126.973666 -272.000000
-3049.042989 -1128.871033 -272.000000
-3048.410534 -1130.768399 -272.000000
-3047.778078 -1132.665766 -272.000000
-3047.145623 -1134.563132 -272.000000
-3046.513167 -1136.460499 -272.000000
-3045.880711 -1138.357866 -272.000000
-3045.248256 -1140.255232 -272.000000
-3044.615800 -1142.152599 -272.000000
-3043.983345 -1144.049965 -272.000000
-3043.350889 -1145.947332 -272.000000
-3042.718434 -1147.844699 -272.000000
-3042.085978 -1149.742065 -272.000000
-3041.453523 -1151.639432 -272.000000
-3040.821067 -1153.536798 -272.000000
-3040.188612 -1155.434165 -272.000000
-3039.556156 -1157.331531 -272.000000
-3038.923701 -1159.228898 -272.000000
-3038.291245 -1161.126265 -272.000000
-3037.658790 -1163.023631 -272.000000
-3037.026334 -1164.920998 -272.000000
-3036.393879 -1166.818364 -272.000000
-3035.761423 -1168.715731 -272.000000
-3035.128967 -1170.613098 -272.000000
-3034.496512 -1172.510464 -272.000000
-3033.864056 -1174.407831 -272.000000
-3033.231601 -1176.305197 -272.000000
-3032.599145 -1178.202564 -272.000000
-3031.966690 -1180.099931 -272.000000
-3031.334234 -1181.997297 -272.000000
-3030.701779 -1183.894664 -272.000000
-3030.069323 -1185.792030 -272.000000
-3029.436868 -1187.689397 -272.000000
-3028.804412 -1189.586764 -272.000000
-3028.000000 -1192.000000 -272.000000
-3028.733049 -1193.860817 -272.000000
-3029.466098 -1195.721634 -272.000000
-3030.199147 -1197.582450 -272.000000
-3030.932196 -1199.443267 -272.000000
-3031.665245 -1201.304084 -272.000000
-3032.398294 -1203.164901 -272.000000
-3033.131343 -1205.025717 -272.000000
-3033.864392 -1206.886534 -272.000000
-3034.597441 -1208.747351 -272.000000
-3035.330490 -1210.608168 -272.000000
-3036.063539 -1212.468985 -272.000000
-3036.796588 -1214.329801 -272.000000
-3037.529637 -1216.190618 -272.000000
-3038.262687 -1218.051435 -272.000000
-3038.995736 -1219.912252 -272.000000
-3039.728785 -1221.773069 -272.000000
-3040.461834 -1223.633885 -272.000000
-3041.194883 -1225.494702 -272.000000
-3041.927932 -1227.355519 -272.000000
-3042.660981 -1229.216336 -272.000000
-3043.394030 -1231.077152 -272.000000
-3044.127079 -1232.937969 -272.000000
-3044.860128 -1234.798786 -272.000000
-3045.593177 -1236.659603 -272.000000
-3046.326226 -1238.520420 -272.000000
-3047.059275 -1240.381236 -272.000000
-3047.792324 -1242.242053 -272.000000
-3048.525373 -1244.102870 -272.000000
-3049.258422 -1245.963687 -272.000000
-3049.991471 -1247.824504 -272.000000
-3050.724520 -1249.685320 -272.000000
-3051.457569 -1251.546137 -272.000000
-3052.190618 -1253.406954 -272.000000
-3052.923667 -1255.267771 -272.000000
-3053.656716 -1257.128587 -272.000000
-3054.389765 -1258.989404 -272.000000
-3055.122814 -1260.850221 -272.000000
-3055.855863 -1262.711038 -272.000000
-3056.588912 -1264.571855 -272.000000
-3057.321961 -1266.432671 -272.000000
-3058.055011 -1268.293488 -272.000000
-3058.788060 -1270.154305 -272.000000
-3059.521109 -1272.015122 -272.000000
-3060.254158 -1273.875939 -272.000000
-3060.987207 -1275.736755 -272.000000
-3061.720256 -1277.597572 -272.000000
-3062.453305 -1279.458389 -272.000000
-3063.186354 -1281.319206 -272.000000
-3063.919403 -1283.180022 -272.000000
-3064.652452 -1285.040839 -272.000000
-3065.385501 -1286.901656 -272.000000
-3066.118550 -1288.762473 -272.000000
-3066.851599 -1290.623290 -272.000000
-3067.584648 -1292.484106 -272.000000
-3068.317697 -1294.344923 -272.000000
-3069.050746 -1296.205740 -272.000000
-3069.783795 -1298.066557 -272.000000
-3070.516844 -1299.927374 -272.000000
-3071.249893 -1301.788190 -272.000000
-3071.982942 -1303.649007 -272.000000
-3072.715991 -1305.509824 -272.000000
-3073.449040 -1307.370641 -272.000000
-3074.182089 -1309.231457 -272.000000
-3074.915138 -1311.092274 -272.000000
-3075.648187 -1312.953091 -272.000000
-3076.381236 -1314.813908 -272.000000
-3077.114285 -1316.674725 -272.000000
-3077.847335 -1318.535541 -272.000000
-3078.580384 -1320.396358 -272.000000
-3079.313433 -1322.257175 -272.000000
-3080.046482 -1324.117992 -272.000000
-3080.779531 -1325.978809 -272.000000
-3081.512580 -1327.839625 -272.000000
-3082.245629 -1329.700442 -272.000000
-3082.978678 -1331.561259 -272.000000
-3083.711727 -1333.422076 -272.000000
-3084.444776 -1335.282892 -272.000000
-3085.177825 -1337.143709 -272.000000
-3085.910874 -1339.004526 -272.000000
-3086.643923 -1340.865343 -272.000000
-3087.376972 -1342.726160 -272.000000
-3088.110021 -1344.586976 -272.000000
-3088.843070 -1346.447793 -272.000000
-3089.576119 -1348.308610 -272.000000
-3090.309168 -1350.169427 -272.000000
-3091.042217 -1352.030244 -272.000000
-3091.775266 -1353.891060 -272.000000
-3092.508315 -1355.751877 -272.000000
-3093.241364 -1357.612694 -272.000000
-3093.974413 -1359.473511 -272.000000
-3094.707462 -1361.334327 -272.000000
-3095.440511 -1363.195144 -272.000000
-3096.173560 -1365.055961 -272.000000
-3096.906609 -1366.916778 -272.000000
-3097.639658 -1368.777595 -272.000000
-3098.372708 -1370.638411 -272.000000
-3099.105757 -1372.499228 -272.000000
-3099.838806 -1374.360045 -272.000000
-3100.571855 -1376.220862 -272.000000
-3101.304904 -1378.081679 -272.000000
-3102.037953 -1379.942495 -272.000000
-3102.771002 -1381.803312 -272.000000
-3103.504051 -1383.664129 -272.000000
-3104.237100 -1385.524946 -272.000000
-3104.970149 -1387.385762 -272.000000
-3105.703198 -1389.246579 -272.000000
-3106.436247 -1391.107396 -272.000000
-3107.169296 -1392.968213 -272.000000
-3107.902345 -1394.829030 -272.000000
-3108.635394 -1396.689846 -272.000000
-3109.368443 -1398.550663 -272.000000
-3110.101492 -1400.411480 -272.000000
-3110.834541 -1402.272297 -272.000000
-3111.567590 -1404.133114 -272.000000
-3112.300639 -1405.993930 -272.000000
-3113.033688 -1407.854747 -272.000000
-3113.766737 -1409.715564 -272.000000
-3114.499786 -1411.576381 -272.000000
-3115.232835 -1413.437197 -272.000000
-3115.965884 -1415.298014 -272.000000
-3116.698933 -1417.158831 -272.000000
-3117.431982 -1419.019648 -272.000000
-3118.165032 -1420.880465 -272.000000
-3118.898081 -1422.741281 -272.000000
-3119.631130 -1424.602098 -272.000000
-3120.364179 -1426.462915 -272.000000
-3121.097228 -1428.323732 -272.000000
-3121.830277 -1430.184549 -272.000000
-3122.563326 -1432.045365 -272.000000
-3123.296375 -1433.906182 -272.000000
-3124.029424 -1435.766999 -272.000000
-3124.762473 -1437.627816 -272.000000
-3125.495522 -1439.488632 -272.000000
-3126.228571 -1441.349449 -272.000000
-3126.961620 -1443.210266 -272.000000
-3127.694669 -1445.071083 -272.000000
-3128.427718 -1446.931900 -272.000000
-3129.160767 -1448.792716 -272.000000
-3129.893816 -1450.653533 -272.000000
-3130.626865 -1452.514350 -272.000000
-3132.000000 -1456.000000 -272.000000
-3132.000000 -1458.000000 -272.000000
-3132.000000 -1460.000000 -272.000000
-3132.000000 -1462.000000 -272.000000
-3132.000000 -1464.000000 -272.000000
-3132.000000 -1466.000000 -272.000000
-3132.000000 -1468.000000 -272.000000
-3132.000000 -1470.000000 -272.000000
-3132.000000 -1472.000000 -272.000000
-3132.000000 -1474.000000 -272.000000
-3132.000000 -1476.000000 -272.000000
-3132.000000 -1478.000000 -272.000000
-3132.000000 -1480.000000 -272.000000
-3132.000000 -1482.000000 -272.000000
-3132.000000 -1484.000000 -272.000000
-3132.000000 -1486.000000 -272.000000
-3132.000000 -1488.000000 -272.000000
-3132.000000 -1490.000000 -272.000000
-3132.000000 -1492.000000 -272.000000
-3132.000000 -1494.000000 -272.000000
-3132.000000 -1496.000000 -272.000000
-3132.000000 -1498.000000 -272.000000
-3132.000000 -1500.000000 -272.000000
-3132.000000 -1502.000000 -272.000000
-3132.000000 -1504.000000 -272.000000
-3132.000000 -1506.000000 -272.000000
-3132.000000 -1508.000000 -272.000000
-3132.000000 -1510.000000 -272.000000
-3132.000000 -1512.000000 -272.000000
-3132.000000 -1514.000000 -272.000000
-3132.000000 -1516.000000 -272.000000
-3132.000000 -1518.000000 -272.000000
-3132.000000 -1520.000000 -272.000000
-3132.000000 -1522.000000 -272.000000
-3132.000000 -1524.000000 -272.000000
-3132.000000 -1526.000000 -272.000000
-3132.000000 -1528.000000 -272.000000
-3132.000000 -1530.000000 -272.000000
-3132.000000 -1532.000000 -272.000000
-3132.000000 -1534.000000 -272.000000
-3132.000000 -1536.000000 -272.000000
-3132.000000 -1538.000000 -272.000000
-3132.000000 -1540.000000 -272.000000
-3132.000000 -1542.000000 -272.000000
-3132.000000 -1544.000000 -272.000000
-3132.000000 -1546.000000 -272.000000
-3132.000000 -1548.000000 -272.000000
-3132.000000 -1550.000000 -272.000000
-3132.000000 -1552.000000 -272.000000
-3132.000000 -1554.000000 -272.000000
-3132.000000 -1556.000000 -272.000000
-3132.000000 -1558.000000 -272.000000
-3132.000000 -1560.000000 -272.000000
-3132.000000 -1562.000000 -272.000000
-3132.000000 -1564.000000 -272.000000
-3132.000000 -1568.000000 -272.000000
-3132.000000 -1570.000000 -272.000000
-3132.000000 -1572.000000 -272.000000
-3132.000000 -1574.000000 -272.000000
-3132.000000 -1576.000000 -272.000000
-3132.000000 -1578.000000 -272.000000
-3132.000000 -1580.000000 -272.000000
-3132.000000 -1582.000000 -272.000000
-3132.000000 -1584.000000 -272.000000
-3132.000000 -1586.000000 -272.000000
-3132.000000 -1588.000000 -272.000000
-3132.000000 -1590.000000 -272.000000
-3132.000000 -1592.000000 -272.000000
-3132.000000 -1594.000000 -272.000000
-3132.000000 -1596.000000 -272.000000
-3132.000000 -1598.000000 -272.000000
-3132.000000 -1600.000000 -272.000000
-3132.000000 -1602.000000 -272.000000
-3132.000000 -1604.000000 -272.000000
-3132.000000 -1606.000000 -272.000000
-3132.000000 -1608.000000 -272.000000
-3132.000000 -1610.000000 -272.000000
-3132.000000 -1612.000000 -272.000000
-3132.000000 -1614.000000 -272.000000
-3132.000000 -1616.000000 -272.000000
-3132.000000 -1618.000000 -272.000000
-3132.000000 -1620.000000 -272.000000
-3132.000000 -1622.000000 -272.000000
-3132.000000 -1624.000000 -272.000000
-3132.000000 -1626.000000 -272.000000
-3132.000000 -1628.000000 -272.000000
-3132.000000 -1630.000000 -272.000000
-3132.000000 -1632.000000 -272.000000
-3132.000000 -1634.000000 -272.000000
-3132.000000 -1636.000000 -272.000000
-3132.000000 -1638.000000 -272.000000
-3132.000000 -1640.000000 -272.000000
-3132.000000 -1642.000000 -272.000000
-3132.000000 -1644.000000 -272.000000
-3132.000000 -1646.000000 -272.000000
-3132.000000 -1648.000000 -272.000000
-3132.000000 -1650.000000 -272.000000
-3132.000000 -1652.000000 -272.000000
-3132.000000 -1654.000000 -272.000000
-3132.000000 -1656.000000 -272.000000
-3132.000000 -1658.000000 -272.000000
-3132.000000 -1660.000000 -272.000000
-3132.000000 -1662.000000 -272.000000
-3132.000000 -1664.000000 -272.000000
-3132.000000 -1666.000000 -272.000000
-3132.000000 -1668.000000 -272.000000
-3132.000000 -1670.000000 -272.000000
-3132.000000 -1672.000000 -272.000000
-3132.000000 -1674.000000 -272.000000
-3132.000000 -1676.000000 -272.000000
-3132.000000 -1678.000000 -272.000000
-3132.000000 -1680.000000 -272.000000
-3132.000000 -1682.000000 -272.000000
-3132.000000 -1684.000000 -272.000000
-3132.000000 -1686.000000 -272.000000
-3132.000000 -1688.000000 -272.000000
-3132.000000 -1690.000000 -272.000000
-3132.000000 -1692.000000 -272.000000
-3132.000000 -1694.000000 -272.000000
-3132.000000 -1696.000000 -272.000000
-3132.000000 -1698.000000 -272.000000
-3132.000000 -1700.000000 -272.000000
-3132.000000 -1702.000000 -272.000000
-3132.000000 -1704.000000 -272.000000
-3132.000000 -1706.000000 -272.000000
-3132.000000 -1708.000000 -272.000000
-3132.000000 -1710.000000 -272.000000
-3132.000000 -1712.000000 -272.000000
-3132.000000 -1714.000000 -272.000000
-3132.000000 -1716.000000 -272.000000
-3132.000000 -1718.000000 -272.000000
-3132.000000 -1720.000000 -272.000000
-3132.000000 -1722.000000 -272.000000
-3132.000000 -1724.000000 -272.000000
-3132.000000 -1728.000000 -272.000000
-3132.837368 -1729.816264 -272.000000
-3133.674737 -1731.632528 -272.000000
-3134.512105 -1733.448791 -272.000000
-3135.349474 -1735.265055 -272.000000
-3136.186842 -1737.081319 -272.000000
-3137.024210 -1738.897583 -272.000000
-3137.861579 -1740.713847 -272.000000
-3138.698947 -1742.530110 -272.000000
-3139.536315 -1744.346374 -272.000000
-3140.373684 -1746.162638 -272.000000
-3141.211052 -1747.978902 -272.000000
-3142.048421 -1749.795166 -272.000000
-3142.885789 -1751.611429 -272.000000
-3143.723157 -1753.427693 -272.000000
-3144.560526 -1755.243957 -272.000000
-3145.397894 -1757.060221 -272.000000
-3146.235262 -1758.876485 -272.000000
-3147.072631 -1760.692748 -272.000000
-3147.909999 -1762.509012 -272.000000
-3148.747368 -1764.325276 -272.000000
-3149.584736 -1766.141540 -272.000000
-3150.422104 -1767.957804 -272.000000
-3151.259473 -1769.774067 -272.000000
-3152.096841 -1771.590331 -272.000000
-3152.934209 -1773.406595 -272.000000
-3153.771578 -1775.222859 -272.000000
-3154.608946 -1777.039123 -272.000000
-3155.446315 -1778.855386 -272.000000
-3156.283683 -1780.671650 -272.000000
-3157.121051 -1782.487914 -272.000000
-3157.958420 -1784.304178 -272.000000
-3158.795788 -1786.120442 -272.000000
-3159.633156 -1787.936705 -272.000000
-3160.470525 -1789.752969 -272.000000
-3161.307893 -1791.569233 -272.000000
-3162.145262 -1793.385497 -272.000000
-3162.982630 -1795.201761 -272.000000
-3163.819998 -1797.018025 -272.000000
-3164.657367 -1798.834288 -272.000000
-3165.494735 -1800.650552 -272.000000
-3166.332103 -1802.466816 -272.000000
-3167.169472 -1804.283080 -272.000000
-3168.006840 -1806.099344 -272.000000
-3168.844209 -1807.915607 -272.000000
-3169.681577 -1809.731871 -272.000000
-3170.518945 -1811.548135 -272.000000
-3171.356314 -1813.364399 -272.000000
-3172.193682 -1815.180663 -272.000000
-3173.031050 -1816.996926 -272.000000
-3173.868419 -1818.813190 -272.000000
-3174.705787 -1820.629454 -272.000000
-3175.543156 -1822.445718 -272.000000
-3176.380524 -1824.261982 -272.000000
-3177.217892 -1826.078245 -272.000000
-3178.055261 -1827.894509 -272.000000
-3178.892629 -1829.710773 -272.000000
-3179.729997 -1831.527037 -272.000000
-3180.567366 -1833.343301 -272.000000
-3181.404734 -1835.159564 -272.000000
-3182.242103 -1836.975828 -272.000000
-3183.079471 -1838.792092 -272.000000
-3183.916839 -1840.608356 -272.000000
-3184.754208 -1842.424620 -272.000000
-3185.591576 -1844.240883 -272.000000
-3186.428944 -1846.057147 -272.000000
-3187.266313 -1847.873411 -272.000000
-3188.103681 -1849.689675 -272.000000
-3188.941050 -1851.505939 -272.000000
-3189.778418 -1853.322202 -272.000000
-3190.615786 -1855.138466 -272.000000
-3191.453155 -1856.954730 -272.000000
-3192.290523 -1858.770994 -272.000000
-3193.127891 -1860.587258 -272.000000
-3193.965260 -1862.403521 -272.000000
-3194.802628 -1864.219785 -272.000000
-3195.639997 -1866.036049 -272.000000
-3196.477365 -1867.852313 -272.000000
-3197.314733 -1869.668577 -272.000000
-3198.152102 -1871.484840 -272.000000
-3198.989470 -1873.301104 -272.000000
-3199.826839 -1875.117368 -272.000000
-3200.664207 -1876.933632 -272.000000
-3201.501575 -1878.749896 -272.000000
-3203.000000 -1882.000000 -272.000000
-3204.195495 -1883.603369 -272.000000
-3205.390989 -1885.206738 -272.000000
-3206.586484 -1886.810108 -272.000000
-3207.781978 -1888.413477 -272.000000
-3208.977473 -1890.016846 -272.000000
-3210.172967 -1891.620215 -272.000000
-3211.368462 -1893.223584 -272.000000
-3212.563957 -1894.826953 -272.000000
-3213.759451 -1896.430323 -272.000000
-3214.954946 -1898.033692 -272.000000
-3216.150440 -1899.637061 -272.000000
-3217.345935 -1901.240430 -272.000000
-3218.541429 -1902.843799 -272.000000
-3219.736924 -1904.447169 -272.000000
-3220.932419 -1906.050538 -272.000000
-3222.127913 -1907.653907 -272.000000
-3223.323408 -1909.257276 -272.000000
-3224.518902 -1910.860645 -272.000000
-3225.714397 -1912.464014 -272.000000
-3226.909891 -1914.067384 -272.000000
-3228.105386 -1915.670753 -272.000000
-3229.300880 -1917.274122 -272.000000
-3230.496375 -1918.877491 -272.000000
-3231.691870 -1920.480860 -272.000000
-3232.887364 -1922.084230 -272.000000
-3234.082859 -1923.687599 -272.000000
-3235.278353 -1925.290968 -272.000000
-3236.473848 -1926.894337 -272.000000
-3237.669342 -1928.497706 -272.000000
-3238.864837 -1930.101076 -272.000000
-3240.060332 -1931.704445 -272.000000
-3241.255826 -1933.307814 -272.000000
-3242.451321 -1934.911183 -272.000000
-3243.646815 -1936.514552 -272.000000
-3244.842310 -1938.117921 -272.000000
-3246.037804 -1939.721291 -272.000000
-3247.233299 -1941.324660 -272.000000
-3248.428794 -1942.928029 -272.000000
-3249.624288 -1944.531398 -272.000000
-3250.819783 -1946.134767 -272.000000
-3252.015277 -1947.738137 -272.000000
-3253.210772 -1949.341506 -272.000000
-3254.406266 -1950.944875 -272.000000
-3255.601761 -1952.548244 -272.000000
-3256.797256 -1954.151613 -272.000000
-3257.992750 -1955.754982 -272.000000
-3259.188245 -1957.358352 -272.000000
-3260.383739 -1958.961721 -272.000000
-3261.579234 -1960.565090 -272.000000
-3262.774728 -1962.168459 -272.000000
-3263.970223 -1963.771828 -272.000000
-3265.165717 -1965.375198 -272.000000
-3266.361212 -1966.978567 -272.000000
-3267.556707 -1968.581936 -272.000000
-3268.752201 -1970.185305 -272.000000
-3269.947696 -1971.788674 -272.000000
-3271.143190 -1973.392043 -272.000000
-3272.338685 -1974.995413 -272.000000
-3273.534179 -1976.598782 -272.000000
-3274.729674 -1978.202151 -272.000000
-3275.925169 -1979.805520 -272.000000
-3277.120663 -1981.408889 -272.000000
-3278.316158 -1983.012259 -272.000000
-3279.511652 -1984.615628 -272.000000
-3280.707147 -1986.218997 -272.000000
-3281.902641 -1987.822366 -272.000000
-3283.098136 -1989.425735 -272.000000
-3284.293631 -1991.029105 -272.000000
-3285.489125 -1992.632474 -272.000000
-3286.684620 -1994.235843 -272.000000
-3288.000000 -1996.000000 -272.000000
-3288.282843 -1997.979899 -272.000000
-3288.565685 -1999.959798 -272.000000
-3288.848528 -2001.939697 -272.000000
-3289.131371 -2003.919596 -272.000000
-3289.414214 -2005.899495 -272.000000
-3289.697056 -2007.879394 -272.000000
-3289.979899 -2009.859293 -272.000000
-3290.262742 -2011.839192 -272.000000
-3290.545584 -2013.819091 -272.000000
-3290.828427 -2015.798990 -272.000000
-3291.111270 -2017.778889 -272.000000
-3291.394113 -2019.758788 -272.000000
-3291.676955 -2021.738687 -272.000000
-3291.959798 -2023.718586 -272.000000
-3292.242641 -2025.698485 -272.000000
-3292.525483 -2027.678384 -272.000000
-3292.808326 -2029.658283 -272.000000
-3293.091169 -2031.638182 -272.000000
-3293.374012 -2033.618081 -272.000000
-3293.656854 -2035.597980 -272.000000
-3293.939697 -2037.577879 -272.000000
-3294.222540 -2039.557778 -272.000000
-3294.505382 -2041.537677 -272.000000
-3294.788225 -2043.517576 -272.000000
-3295.071068 -2045.497475 -272.000000
-3295.353911 -2047.477374 -272.000000
-3295.636753 -2049.457273 -272.000000
-3295.919596 -2051.437172 -272.000000
-3296.202439 -2053.417071 -272.000000
-3296.485281 -2055.396970 -272.000000
-3296.768124 -2057.376869 -272.000000
-3297.050967 -2059.356768 -272.000000
-3297.333810 -2061.336667 -272.000000
-3297.616652 -2063.316566 -272.000000
-3297.899495 -2065.296465 -272.000000
-3298.182338 -2067.276364 -272.000000
-3298.465180 -2069.256263 -272.000000
-3298.748023 -2071.236162 -272.000000
-3299.030866 -2073.216061 -272.000000
-3299.313708 -2075.195959 -272.000000
-3299.596551 -2077.175858 -272.000000
-3300.000000 -2080.000000 -272.000000
-3300.000000 -2082.000000 -272.000000
-3300.000000 -2084.000000 -272.000000
-3300.000000 -2086.000000 -272.000000
-3300.000000 -2088.000000 -272.000000
-3300.000000 -2090.000000 -272.000000
-3300.000000 -2092.000000 -272.000000
-3300.000000 -2094.000000 -272.000000
-3300.000000 -2096.000000 -272.000000
-3300.000000 -2098.000000 -272.000000
-3300.000000 -2100.000000 -272.000000
-3300.000000 -2102.000000 -272.000000
-3300.000000 -2104.000000 -272.000000
-3300.000000 -2106.000000 -272.000000
-3300.000000 -2108.000000 -272.000000
-3300.000000 -2110.000000 -272.000000
-3300.000000 -2112.000000 -272.000000
-3300.000000 -2114.000000 -272.000000
-3300.000000 -2116.000000 -272.000000
-3300.000000 -2118.000000 -272.000000
-3300.000000 -2120.000000 -272.000000
-3300.000000 -2122.000000 -272.000000
-3300.000000 -2124.000000 -272.000000
-3300.000000 -2128.000000 -272.000000
-3299.298138 -2129.824842 -272.421117
-3298.596275 -2131.649685 -272.842235
-3297.894413 -2133.474527 -273.263352
-3297.192550 -2135.299369 -273.684470
-3296.490688 -2137.124211 -274.105587
-3295.788826 -2138.949054 -274.526705
-3295.086963 -2140.773896 -274.947822
-3294.385101 -2142.598738 -275.368940
-3293.683238 -2144.423580 -275.790057
-3292.981376 -2146.248423 -276.211174
-3292.279514 -2148.073265 -276.632292
-3291.577651 -2149.898107 -277.053409
-3290.875789 -2151.722949 -277.474527
-3290.173926 -2153.547792 -277.895644
-3289.472064 -2155.372634 -278.316762
-3288.770201 -2157.197476 -278.737879
-3288.068339 -2159.022318 -279.158997
-3287.366477 -2160.847161 -279.580114
-3286.664614 -2162.672003 -280.001231
-3285.962752 -2164.496845 -280.422349
-3285.260889 -2166.321687 -280.843466
-3284.559027 -2168.146530 -281.264584
-3283.857165 -2169.971372 -281.685701
-3283.155302 -2171.796214 -282.106819
-3282.453440 -2173.621056 -282.527936
-3281.751577 -2175.445899 -282.949054
-3281.049715 -2177.270741 -283.370171
-3280.000000 -2180.000000 -284.000000
-3278.951805 -2181.703317 -284.000000
-3277.903610 -2183.406633 -284.000000
-3276.855415 -2185.109950 -284.000000
-3275.807221 -2186.813267 -284.000000
-3274.759026 -2188.516583 -284.000000
-3273.710831 -2190.219900 -284.000000
-3272.662636 -2191.923216 -284.000000
-3271.614441 -2193.626533 -284.000000
-3270.566246 -2195.329850 -284.000000
-3269.518051 -2197.033166 -284.000000
-3268.469857 -2198.736483 -284.000000
-3267.421662 -2200.439800 -284.000000
-3266.373467 -2202.143116 -284.000000
-3265.325272 -2203.846433 -284.000000
-3264.277077 -2205.549750 -284.000000
-3263.228882 -2207.253066 -284.000000
-3262.180688 -2208.956383 -284.000000
-3261.132493 -2210.659699 -284.000000
-3260.084298 -2212.363016 -284.000000
-3259.036103 -2214.066333 -284.000000
-3257.987908 -2215.769649 -284.000000
-3256.939713 -2217.472966 -284.000000
-3255.891518 -2219.176283 -284.000000
-3254.843324 -2220.879599 -284.000000
-3253.795129 -2222.582916 -284.000000
-3252.746934 -2224.286232 -284.000000
-3251.698739 -2225.989549 -284.000000
-3250.650544 -2227.692866 -284.000000
-3249.602349 -2229.396182 -284.000000
